ncols        120
nrows        120
xllcorner    73.600000000000
yllcorner    32.099999999998
cellsize     0.004166666667
NODATA_value -9999
 221 222 222 222 222 222 221 220 221 221 220 220 219 219 220 219 219 219 219 219 219 219 219 218 219 219 219 220 219 219 220 221 220 220 220 220 220 219 220 220 221 221 223 223 223 223 223 223 224 224 226 226 225 226 226 225 226 227 228 228 228 227 228 228 230 231 230 232 231 231 231 229 232 229 229 229 229 230 229 229 229 229 231 228 230 230 230 229 230 232 231 232 231 230 230 228 230 231 230 231 230 232 231 233 232 231 234 231 232 232 232 233 234 234 234 235 233 233 233 232
 222 221 222 223 222 222 221 221 220 219 220 220 219 220 219 219 218 219 219 218 218 219 219 218 219 219 218 219 219 219 219 219 221 219 221 220 220 219 220 219 220 221 222 224 222 222 223 224 225 225 225 226 226 225 225 225 225 226 226 228 226 227 228 228 230 230 232 232 230 231 229 229 231 230 228 228 230 229 228 229 228 228 229 231 230 229 229 228 230 229 229 230 228 230 228 229 231 230 230 230 231 231 231 231 230 232 232 233 232 231 232 233 233 233 234 234 234 232 233 233
 221 221 222 222 222 222 222 220 219 219 220 220 220 220 219 218 218 219 219 218 219 218 218 218 221 218 218 220 217 219 219 219 219 219 220 220 219 219 220 220 220 221 222 223 222 225 225 224 225 225 225 226 225 224 225 225 225 226 226 226 226 226 228 228 227 227 228 229 229 228 229 229 230 231 229 229 228 229 228 228 228 228 229 229 228 229 228 229 230 227 230 226 228 227 228 227 230 229 229 230 230 230 232 230 231 231 232 230 234 233 233 233 232 232 233 233 232 232 232 233
 221 222 222 222 222 221 220 219 220 220 220 220 220 220 219 218 219 219 219 218 218 217 218 217 217 218 217 217 218 218 218 219 219 219 219 219 219 220 219 219 220 221 222 222 223 224 224 225 223 224 225 225 225 224 223 223 225 225 225 225 224 225 227 226 228 229 228 228 228 227 227 228 230 229 231 231 228 228 225 229 228 229 227 227 229 227 227 229 227 229 227 228 227 228 227 228 230 228 229 229 230 231 230 231 230 231 230 231 230 232 233 232 231 232 233 234 233 234 232 234
 220 221 221 221 220 220 220 221 221 221 220 220 219 220 218 219 219 219 219 218 219 218 217 217 216 216 216 217 217 217 219 217 219 219 220 219 220 219 219 219 221 220 221 221 221 223 223 223 224 223 224 224 224 224 224 225 224 225 224 224 224 224 224 226 228 228 228 228 228 228 227 227 227 229 228 226 229 226 227 227 227 229 227 229 226 227 227 228 229 227 227 228 227 228 227 228 229 229 228 229 230 230 231 230 230 230 230 230 229 230 230 230 232 231 233 235 235 233 234 232
 221 221 221 221 221 220 220 219 220 221 220 220 220 219 218 219 220 219 218 218 218 217 217 217 217 216 216 216 216 217 216 217 218 218 218 220 219 219 219 220 221 223 221 221 222 223 222 223 222 222 223 224 224 223 223 223 224 225 225 224 223 223 223 224 227 227 228 227 226 227 227 226 225 227 227 228 227 226 227 226 226 226 228 226 226 229 224 229 226 229 228 225 228 227 227 227 227 227 228 229 229 231 229 229 229 230 229 230 228 230 231 230 231 232 236 235 234 234 232 232
 220 220 222 220 220 221 220 220 221 220 219 220 219 219 219 219 219 219 218 218 217 218 217 217 217 216 216 216 216 217 216 217 218 218 218 218 218 218 218 219 220 220 221 220 221 222 222 222 221 222 222 222 223 223 223 223 224 223 224 223 222 223 223 225 226 226 225 226 225 226 226 226 225 225 226 228 227 226 225 227 227 226 227 225 227 225 225 224 225 228 227 227 226 227 227 227 227 227 228 227 229 228 229 229 229 229 229 229 229 230 229 230 232 232 238 237 234 234 231 231
 220 221 220 220 219 219 220 219 219 219 219 219 219 218 219 220 219 219 218 218 218 217 217 217 216 216 216 215 216 215 216 216 217 218 218 218 219 218 218 218 219 219 220 220 220 221 222 223 222 222 222 221 222 222 222 223 224 224 223 222 221 223 224 225 227 225 225 225 226 226 224 225 224 225 227 227 227 226 227 226 226 226 224 225 225 225 223 224 225 223 228 224 228 227 226 227 227 227 227 227 228 228 228 228 229 228 228 229 229 230 233 233 232 232 233 232 234 232 231 231
 221 220 220 219 218 219 219 219 218 218 218 218 219 219 220 220 219 219 219 218 217 218 218 217 216 216 215 215 215 216 216 216 217 218 220 219 217 218 217 218 219 218 219 219 219 220 220 221 222 220 222 221 221 222 222 222 223 223 222 222 222 222 224 226 224 224 224 223 225 224 224 223 224 226 227 227 225 225 226 225 226 225 226 223 224 224 223 224 223 225 225 225 225 225 226 226 226 227 227 229 229 227 227 227 227 228 229 229 229 231 234 231 231 230 229 232 230 229 229 228
 220 220 220 219 219 219 219 219 218 218 219 218 219 219 219 218 219 219 218 218 218 216 216 217 216 216 216 216 216 215 216 217 218 217 217 218 218 217 218 217 218 218 218 217 218 220 220 220 221 220 221 221 221 222 221 221 221 222 221 220 222 223 225 223 224 223 223 224 223 224 223 223 224 225 226 226 225 225 226 225 224 224 224 224 225 226 225 222 224 224 224 224 225 225 224 227 226 226 227 227 226 229 227 227 227 226 227 229 228 229 230 230 228 228 230 229 230 229 227 228
 220 220 219 220 218 219 219 219 219 219 219 219 219 220 219 218 219 219 219 218 217 217 217 216 216 216 218 217 217 216 217 216 217 218 218 218 217 216 216 218 218 217 217 217 218 219 220 220 221 220 221 221 221 221 220 220 220 220 220 221 223 223 224 224 224 223 223 223 223 221 222 223 224 225 224 225 225 223 224 221 225 224 223 224 223 224 223 224 224 224 226 224 224 224 224 225 226 227 227 227 227 227 228 227 227 227 227 227 225 227 228 227 228 228 227 228 230 228 228 229
 219 220 219 220 220 218 219 219 219 218 220 219 219 218 218 218 218 218 218 219 218 217 217 218 216 217 217 218 218 218 217 217 216 217 217 218 216 216 217 218 216 216 217 217 217 218 219 219 219 220 222 221 220 220 220 220 220 220 220 222 222 222 225 224 224 223 223 222 223 222 223 223 224 224 223 225 223 224 221 222 223 222 223 223 224 223 224 225 224 225 223 225 225 225 226 226 228 226 227 228 226 227 227 227 227 227 226 227 228 228 228 227 227 227 227 227 230 231 227 228
 219 219 219 218 219 218 219 218 219 218 219 219 219 219 218 218 220 220 219 219 217 218 218 217 217 218 218 217 217 215 215 215 216 216 217 218 217 217 216 216 217 217 216 216 217 217 218 219 219 220 220 220 220 218 220 219 219 220 220 221 221 223 224 223 224 224 222 222 222 221 223 224 224 223 225 224 223 223 220 224 223 223 221 223 223 224 224 223 224 224 224 225 225 226 227 226 226 227 227 227 227 227 226 228 227 226 226 225 227 227 228 227 227 227 227 227 228 228 227 228
 218 219 219 218 218 218 218 218 219 217 218 218 218 219 219 217 217 218 218 218 218 218 218 218 218 218 218 216 215 214 214 214 214 215 215 217 216 216 216 216 215 215 216 216 217 217 218 218 218 218 218 219 219 218 219 220 220 221 221 221 221 222 221 221 222 222 222 221 221 222 222 222 222 223 224 223 223 221 223 221 223 223 225 223 224 226 225 225 224 224 224 224 225 225 225 227 230 226 227 227 225 227 227 227 226 227 226 226 226 226 225 227 226 226 228 225 226 227 228 227
 219 219 219 218 219 218 217 217 217 216 216 218 217 218 219 218 218 217 217 218 218 218 217 217 218 217 215 214 214 214 214 214 215 215 215 216 216 215 215 215 215 215 216 215 216 216 216 216 218 218 218 218 218 219 219 220 220 220 221 220 220 221 221 222 221 222 220 220 221 220 222 221 223 223 223 223 220 222 221 222 222 222 224 224 224 224 223 225 224 225 224 225 225 226 226 227 227 226 226 225 226 226 226 227 226 225 226 226 225 226 227 227 226 226 226 226 226 225 226 227
 218 218 218 218 218 218 217 216 213 212 212 214 217 218 218 218 218 217 217 217 218 219 217 216 215 215 214 215 215 214 214 216 217 215 215 215 215 215 216 215 215 215 214 215 218 216 214 216 217 217 217 218 218 218 217 219 219 221 222 219 220 220 221 220 221 220 219 220 219 221 222 222 222 222 223 220 221 221 221 221 222 224 225 224 224 223 225 223 225 226 226 225 226 226 225 226 226 226 226 227 227 226 227 226 225 226 225 224 226 225 226 227 226 225 225 225 225 225 226 225
 218 218 218 217 217 218 217 212 211 212 212 212 213 216 217 218 218 218 217 218 218 217 218 216 215 215 216 214 215 214 214 215 216 215 215 214 215 214 215 215 214 215 214 214 215 215 216 216 217 218 216 217 217 216 217 218 218 220 220 220 218 218 219 220 220 219 219 219 220 220 220 221 221 221 222 221 220 221 221 219 223 222 224 223 223 224 223 224 225 229 229 226 226 225 225 225 226 228 225 226 226 226 226 225 225 224 226 226 224 225 225 225 225 225 225 225 224 224 226 225
 219 218 218 217 217 218 217 211 211 211 212 212 211 213 215 217 218 218 216 217 218 218 218 215 214 213 214 214 215 215 214 215 216 216 214 215 214 215 215 215 213 215 214 214 214 215 215 215 216 215 215 215 217 217 217 218 218 219 218 219 220 219 219 219 218 219 218 220 220 220 221 220 220 219 220 221 219 220 220 221 221 222 222 221 224 222 223 223 223 227 226 225 225 225 224 225 226 227 226 226 226 226 225 226 225 224 224 224 224 225 224 222 224 224 223 224 224 224 226 227
 217 217 218 218 218 218 218 213 211 212 212 212 212 212 213 215 216 217 216 217 217 217 217 215 214 214 214 214 215 214 214 215 215 214 214 217 215 215 214 215 215 214 213 213 214 213 215 214 214 215 215 214 216 217 216 216 217 217 218 218 217 219 218 217 219 219 218 218 218 220 219 220 220 220 220 219 221 220 221 220 221 221 221 223 221 221 222 222 224 223 225 224 225 225 226 225 225 227 227 226 226 225 224 223 225 224 225 224 225 224 224 222 224 224 223 223 224 226 225 224
 211 215 218 218 218 218 218 214 212 211 212 211 212 211 212 212 212 214 214 217 217 217 216 216 216 215 214 214 214 215 215 215 214 215 214 215 214 215 214 215 215 215 214 213 215 214 215 214 214 214 215 216 215 216 217 216 216 217 218 217 216 218 218 219 217 217 218 217 218 217 218 218 220 221 219 220 221 220 221 220 220 222 222 223 221 222 222 223 223 224 224 224 225 225 226 225 225 226 227 226 225 224 225 224 225 224 225 225 224 224 223 223 224 224 224 224 223 224 225 224
 209 209 216 219 217 217 218 216 214 211 212 214 212 213 213 212 213 213 213 215 216 215 215 215 215 216 215 214 214 215 214 214 215 215 213 214 214 213 214 214 217 214 214 215 214 214 214 213 214 214 215 212 214 215 213 215 215 216 216 216 217 217 218 216 217 217 217 219 218 218 219 218 220 219 220 220 219 220 218 220 219 221 221 221 221 221 223 223 223 223 225 225 224 224 225 226 226 226 228 227 224 224 225 225 228 226 225 224 224 224 224 223 225 224 224 224 224 223 224 224
 208 209 210 212 216 218 219 217 215 213 212 211 212 212 213 214 213 213 213 214 213 214 213 214 213 213 214 214 214 214 213 214 214 213 213 213 213 214 214 214 214 214 214 214 214 214 213 214 214 214 213 214 215 214 214 215 215 215 215 215 216 217 217 216 219 217 219 218 218 219 219 219 218 219 220 219 220 220 220 220 219 221 220 221 222 222 223 222 223 223 222 224 224 223 224 224 226 227 227 225 225 224 224 227 224 225 224 224 223 223 222 222 224 222 223 223 223 223 225 227
 211 209 210 210 211 215 216 215 215 213 213 212 213 212 212 212 212 212 211 212 213 213 213 213 214 213 212 213 213 213 213 214 214 214 214 213 214 214 215 214 214 214 214 215 213 213 214 214 215 213 212 214 213 214 214 214 215 215 215 215 216 216 216 218 216 217 218 217 218 218 218 219 218 219 220 220 218 220 220 219 221 221 221 221 221 222 222 223 222 223 223 224 224 224 224 225 225 225 225 224 224 225 224 224 224 224 224 224 223 223 223 222 223 223 223 223 223 224 224 225
 210 208 209 210 210 213 216 217 215 213 212 211 211 211 212 212 211 212 213 213 212 213 212 212 211 212 213 214 213 213 214 212 213 213 214 213 214 214 213 214 214 214 214 214 214 214 213 215 215 214 215 214 215 215 214 214 214 215 214 215 216 215 217 216 217 218 216 218 217 218 219 218 220 218 220 221 219 220 219 221 220 221 220 220 221 221 222 222 222 222 223 223 223 224 224 223 224 224 224 224 225 224 224 224 223 224 223 223 224 223 222 223 222 224 223 224 224 223 224 225
 210 209 210 210 210 211 214 217 214 212 212 212 212 211 211 211 212 213 213 213 212 211 211 212 212 211 212 212 212 212 213 212 213 214 214 213 214 214 215 215 215 215 215 214 214 215 214 215 214 214 215 214 214 214 215 214 216 215 215 216 215 216 215 216 216 215 218 216 217 219 218 220 218 219 218 220 220 220 221 220 220 220 220 221 220 221 221 221 221 222 222 222 223 223 224 224 224 224 225 223 224 223 223 223 224 224 223 223 223 223 222 222 222 223 223 223 222 226 225 225
 209 209 210 210 210 210 211 212 212 211 212 211 211 211 212 212 211 211 212 211 210 210 210 211 212 212 212 213 213 212 213 213 213 213 214 214 215 214 213 214 214 215 215 215 215 214 215 215 214 214 214 215 214 215 215 215 214 214 216 216 215 216 216 216 215 217 217 217 218 218 221 219 218 220 219 220 218 221 220 220 220 220 221 220 222 221 221 221 221 221 222 223 222 224 223 223 223 223 224 223 224 223 223 224 223 223 223 223 222 223 223 223 223 221 221 223 224 224 226 227
 209 208 210 210 210 211 211 211 212 211 211 212 211 212 214 211 211 211 211 211 211 211 211 211 211 211 212 213 212 213 213 213 213 213 213 213 214 213 213 214 214 215 215 215 214 214 215 215 215 214 215 214 215 214 215 215 215 214 214 215 216 215 215 216 217 217 218 220 216 218 219 218 221 218 219 219 220 219 219 219 220 220 219 220 221 220 221 221 221 222 224 223 223 223 222 223 223 222 223 223 222 223 223 223 222 222 222 222 223 221 220 222 221 221 222 220 221 225 223 224
 211 209 208 210 209 211 211 211 212 211 210 211 210 210 211 211 209 212 211 210 211 212 211 212 212 211 211 212 212 212 212 213 213 213 213 213 214 214 213 214 214 214 215 215 215 214 216 215 214 215 214 214 215 214 215 216 217 214 215 215 215 215 215 216 218 217 218 218 220 218 217 220 218 218 217 220 219 219 219 219 220 220 220 220 220 221 221 221 222 221 221 222 222 223 223 222 222 222 222 221 223 222 222 223 222 222 223 222 219 219 219 219 222 219 219 220 219 219 222 222
 210 211 210 209 209 209 209 210 210 210 210 210 210 211 211 210 212 212 212 211 211 213 213 214 212 212 212 211 212 212 212 213 212 213 212 213 214 213 214 213 215 214 216 215 214 215 215 215 216 215 216 216 216 215 216 215 217 215 216 214 216 214 217 217 216 216 219 218 217 217 219 216 219 218 218 219 219 219 218 219 220 220 220 220 220 220 221 221 221 221 222 223 222 222 222 222 222 222 222 222 223 223 222 221 222 222 223 220 221 222 222 222 221 220 223 222 222 223 223 226
 210 210 211 210 210 210 210 211 211 210 210 210 211 210 211 210 210 210 211 211 212 211 210 211 213 213 212 212 212 212 212 212 213 212 213 215 214 213 214 214 215 214 214 215 215 215 215 215 216 216 216 216 217 217 216 217 217 217 216 216 216 216 216 215 217 217 217 218 216 218 216 217 215 218 218 218 218 218 219 218 219 221 220 220 220 220 220 220 222 222 222 223 221 222 222 222 222 222 222 222 222 222 222 222 222 220 222 220 221 222 221 222 222 222 221 223 223 224 225 224
 210 210 210 210 211 212 212 211 210 211 212 211 212 211 209 212 211 208 211 210 212 211 211 211 212 212 212 211 212 212 212 213 213 213 213 214 214 213 214 214 215 215 215 214 216 216 215 216 216 217 216 217 219 217 215 215 217 216 216 218 216 218 216 217 216 216 218 217 217 217 218 217 218 217 217 218 219 220 219 217 218 219 220 220 220 221 220 223 222 222 222 221 221 222 222 222 222 221 221 222 222 222 222 220 219 221 221 219 220 221 222 222 222 222 222 224 224 224 223 225
 210 209 210 210 209 209 209 210 211 212 210 211 211 211 210 211 211 210 211 211 212 212 210 212 212 211 211 212 212 212 211 212 212 213 213 213 214 214 214 214 215 214 213 215 214 215 216 216 217 215 216 217 216 218 217 217 217 216 218 216 217 216 217 217 218 218 215 218 216 217 218 216 219 216 217 218 218 218 218 219 218 219 220 220 220 220 221 222 222 220 221 222 221 222 223 223 222 222 221 222 223 222 221 221 222 220 221 220 220 222 222 222 223 224 223 225 225 226 225 224
 211 212 209 208 208 210 209 208 209 209 210 210 209 210 211 212 212 210 210 212 212 212 211 211 212 211 211 212 211 212 212 212 212 213 213 213 213 214 214 215 215 215 215 214 216 215 214 215 215 215 217 215 217 216 217 217 216 217 216 218 219 218 218 216 218 214 216 216 217 217 217 217 216 217 217 217 217 218 219 217 218 219 220 221 221 220 221 222 221 219 221 221 222 222 221 221 220 222 221 221 221 221 221 222 222 220 220 220 220 223 223 223 223 223 222 223 225 227 227 225
 211 211 209 208 208 210 210 210 210 209 209 210 210 211 211 212 211 210 211 209 212 212 212 212 213 211 211 212 211 211 211 212 211 213 212 213 213 214 213 214 214 215 214 214 214 215 216 215 216 216 217 217 217 217 217 217 217 216 216 218 216 217 215 216 216 216 217 216 218 216 216 217 216 216 216 216 216 217 217 217 219 219 219 220 220 221 222 220 220 221 219 221 220 220 221 221 220 220 221 221 221 219 221 221 221 221 221 220 222 223 222 222 222 223 223 223 225 225 225 225
 211 210 210 209 209 210 210 210 210 210 210 210 210 211 211 211 211 211 211 210 211 210 211 210 210 212 212 213 212 212 212 211 212 213 213 214 213 212 213 214 215 214 215 215 214 215 215 215 215 216 216 218 217 217 217 217 217 217 218 216 217 215 217 217 216 218 217 216 215 217 216 217 217 217 216 216 217 217 218 216 218 219 218 220 222 220 221 220 220 219 219 219 220 220 221 220 221 221 220 220 222 221 220 221 220 219 219 222 223 222 222 223 223 223 224 224 224 225 224 224
 211 211 211 210 211 212 210 210 210 210 209 211 210 210 211 211 210 212 210 211 211 211 211 209 213 211 211 213 213 214 214 213 213 212 212 213 213 213 213 215 215 215 216 214 214 214 214 216 215 215 215 214 216 216 216 217 218 218 217 216 217 217 218 217 217 216 216 216 217 217 216 216 216 217 216 217 217 217 218 217 219 218 219 219 219 219 219 219 220 220 220 219 220 220 221 221 221 222 221 221 222 220 220 217 218 219 221 223 222 221 222 222 223 224 224 224 223 224 224 224
 211 210 210 209 210 210 211 210 210 209 209 209 210 209 210 211 211 211 212 211 213 212 212 212 213 213 210 211 212 213 211 214 214 213 214 214 214 215 215 214 214 214 214 214 215 215 215 215 215 216 214 217 215 216 216 216 217 216 217 216 220 217 218 217 217 217 218 216 218 217 216 216 217 216 216 217 217 219 219 218 219 219 218 219 218 218 218 218 218 219 220 219 220 220 220 221 222 221 221 222 221 217 220 220 217 222 222 222 222 223 222 223 224 223 224 223 223 223 223 224
 210 211 211 209 210 211 211 210 211 211 210 209 209 211 211 211 211 211 211 212 212 213 213 214 212 213 212 210 212 212 212 212 214 214 215 213 213 214 215 214 213 215 214 215 214 216 215 216 217 215 216 215 216 217 217 218 217 218 218 217 221 217 218 215 217 216 214 218 217 217 216 217 217 217 218 217 218 218 219 217 217 217 216 218 218 219 217 218 218 220 218 220 220 220 220 221 221 221 222 220 218 218 219 218 222 224 223 223 223 222 223 223 223 223 223 223 224 223 223 225
 210 210 210 210 210 209 210 210 211 211 210 210 210 212 211 210 212 211 212 213 213 212 213 212 212 214 213 213 212 211 211 212 212 213 214 214 214 214 215 214 213 214 216 214 215 214 215 215 215 214 214 215 216 214 216 216 218 219 216 219 217 218 217 217 217 215 218 217 218 217 215 217 218 217 217 218 218 218 219 217 216 216 217 217 217 218 218 218 218 219 219 219 220 220 220 220 221 221 222 219 220 219 220 221 222 222 222 222 222 222 222 223 223 222 223 223 222 223 224 225
 210 210 211 210 211 211 209 208 209 210 210 212 211 210 210 210 210 211 212 213 213 212 213 213 214 211 213 213 213 213 213 213 212 212 213 212 213 213 214 213 213 215 215 214 213 213 214 214 214 214 214 215 213 215 214 217 217 216 218 216 219 217 216 220 216 218 216 217 217 217 218 217 217 217 218 217 218 217 218 216 217 217 216 217 217 217 218 217 217 219 218 219 220 218 220 220 220 219 218 218 219 219 219 221 222 222 222 223 222 222 223 223 222 222 223 223 223 223 224 227
 210 211 211 209 210 211 210 209 208 209 210 211 211 210 210 211 210 211 212 212 213 212 213 212 213 213 211 213 213 213 213 212 213 212 212 213 211 212 212 212 214 213 214 213 212 214 213 214 214 214 217 215 216 216 215 215 214 217 216 216 217 215 216 215 218 217 217 216 217 218 217 218 217 217 218 217 216 216 217 216 216 217 216 216 217 217 217 217 217 218 219 219 219 220 220 220 220 217 218 220 220 221 221 222 221 222 223 221 222 223 223 222 223 222 223 223 223 223 224 226
 209 209 209 210 211 210 210 210 208 208 210 211 210 211 211 210 211 211 211 212 211 211 212 213 213 211 213 213 213 213 212 213 213 212 212 213 212 212 212 214 213 212 213 212 213 213 214 214 213 215 214 215 215 217 216 215 216 215 215 217 216 218 216 217 217 216 216 217 219 217 218 217 216 217 216 216 217 217 216 216 216 217 217 216 217 217 216 217 217 218 219 220 219 220 221 220 214 215 220 221 221 222 221 221 222 221 222 222 222 223 222 222 223 223 223 223 222 224 226 226
 209 210 210 210 210 210 209 210 209 209 210 210 210 211 210 211 211 211 210 211 211 213 212 211 213 213 211 212 212 213 212 212 212 212 213 213 214 213 214 214 212 214 212 213 214 213 214 213 214 214 215 214 212 215 216 215 214 213 217 214 216 217 218 218 217 218 216 217 217 217 217 216 217 217 216 217 218 217 217 217 217 217 217 216 217 217 217 217 217 217 219 218 219 220 217 214 214 217 221 221 221 221 221 221 221 221 220 221 222 223 222 223 222 222 222 223 225 226 227 226
 208 208 209 209 210 210 210 211 207 210 210 210 210 211 211 211 211 212 211 211 211 212 210 211 211 213 211 212 212 212 214 213 212 212 212 212 212 212 213 213 212 213 213 212 212 212 213 214 214 213 214 214 214 213 213 214 215 217 215 216 216 215 217 216 217 216 215 216 216 216 216 217 216 217 217 216 218 219 218 217 218 218 218 219 218 217 219 217 216 218 218 218 217 217 216 216 215 219 221 220 220 221 220 220 220 220 221 221 221 222 222 223 224 225 224 225 226 227 226 226
 207 208 210 208 210 209 210 209 209 211 210 210 210 209 211 211 210 211 213 211 211 210 211 211 211 211 212 211 211 212 212 212 212 212 213 212 212 213 212 212 210 213 211 212 212 212 214 213 213 213 213 215 215 213 215 215 214 214 214 217 215 216 214 215 214 216 216 216 216 216 217 217 218 217 216 218 217 216 219 218 217 217 219 218 218 217 218 217 215 215 215 216 215 215 216 217 218 219 220 220 220 219 219 220 220 220 221 222 222 222 223 225 224 225 225 225 226 226 225 225
 208 207 208 208 208 209 207 209 210 209 209 209 209 210 209 211 211 211 213 213 213 213 212 212 211 212 212 210 210 210 210 211 211 211 211 212 212 212 212 211 211 212 210 213 212 212 212 213 213 212 215 214 212 218 214 214 215 215 215 213 216 214 215 215 217 216 215 215 215 218 216 216 216 216 218 217 217 218 217 217 219 217 218 215 217 215 215 214 213 214 214 214 216 217 219 220 218 218 220 220 219 220 219 220 220 220 222 223 223 223 225 225 224 226 225 225 225 225 226 226
 209 209 208 207 209 209 209 210 210 209 209 210 208 209 210 211 211 211 212 212 213 211 212 212 211 211 210 211 210 211 211 211 211 211 211 212 213 211 213 211 212 210 212 211 210 213 212 214 213 213 214 212 216 212 214 214 213 214 207 215 213 215 218 217 219 218 216 215 216 216 216 214 215 216 216 216 217 215 214 215 217 217 218 218 218 214 214 213 212 214 214 215 218 219 218 218 219 219 219 219 218 219 219 219 220 222 223 223 224 224 224 224 224 224 224 225 226 225 226 226
 209 209 209 209 210 208 208 208 208 209 208 210 208 210 210 210 211 210 211 212 211 212 212 211 211 210 211 210 210 210 210 210 210 210 210 211 211 212 212 212 212 212 212 211 214 214 214 212 213 212 212 214 214 215 215 215 216 211 214 215 213 214 216 218 218 216 213 214 215 215 215 215 215 213 216 216 215 211 213 216 215 215 214 216 215 211 213 215 215 219 218 218 219 220 219 220 219 219 219 220 219 220 221 221 222 222 223 223 223 223 224 225 224 224 225 226 225 226 225 225
 209 209 209 208 208 208 208 208 209 207 208 208 209 211 209 210 211 210 211 210 212 211 210 211 212 210 210 211 211 209 210 210 209 210 210 211 212 211 212 211 211 212 211 212 212 213 213 213 211 212 214 210 214 214 212 214 212 214 217 216 214 215 215 217 215 213 216 216 216 216 215 215 216 215 213 214 212 210 211 212 213 211 211 213 214 216 218 220 220 220 220 219 219 220 220 219 220 220 220 220 220 220 221 221 222 223 223 223 223 224 224 224 225 225 224 225 225 225 226 226
 207 208 207 207 208 207 207 208 208 207 209 208 208 208 210 210 210 210 210 211 211 210 211 211 211 211 210 212 209 209 210 209 212 209 211 211 211 211 211 212 211 210 213 213 214 212 214 212 210 215 214 214 213 211 214 212 216 214 215 217 214 215 212 213 216 216 214 215 218 216 217 217 215 215 212 213 211 212 214 215 214 212 214 217 218 218 220 220 220 220 219 219 220 219 219 220 220 220 220 219 220 220 221 222 222 223 222 223 223 223 224 224 224 225 225 224 224 226 226 225
 208 208 208 207 208 207 208 207 207 208 208 209 209 209 209 211 210 210 210 210 210 211 211 210 210 210 211 212 210 212 210 210 211 211 212 211 210 211 210 213 210 215 215 213 212 210 213 212 213 214 212 214 212 215 209 214 215 215 214 214 214 214 215 216 215 216 217 215 216 216 215 211 212 210 213 214 215 215 217 218 217 218 218 218 218 219 219 219 219 220 220 219 219 219 219 219 219 219 220 219 220 221 222 223 223 223 222 223 224 224 223 224 224 224 224 225 224 225 226 225
 207 207 206 207 206 206 207 207 207 207 209 209 209 209 208 210 210 210 210 210 211 210 211 211 210 210 211 210 210 209 212 211 210 210 208 209 209 209 211 210 214 214 215 215 209 212 211 215 216 211 214 212 217 209 215 215 214 215 213 214 214 214 215 215 215 215 214 215 216 212 210 211 214 216 217 217 216 217 217 217 217 218 218 219 220 220 219 220 219 219 219 219 220 219 219 219 219 219 220 220 221 222 222 222 223 223 223 223 224 223 224 224 224 224 224 225 224 226 225 225
 206 208 207 206 206 208 207 209 208 208 209 208 209 208 209 209 209 210 210 210 210 212 210 210 209 209 210 212 209 210 211 209 210 211 209 210 208 210 209 211 213 211 212 209 215 212 213 212 212 212 211 213 212 214 214 213 214 214 214 213 214 215 214 215 215 215 214 214 212 212 213 216 218 216 217 218 218 219 218 218 219 219 218 219 218 219 220 221 220 220 219 220 220 220 220 220 220 220 220 221 222 222 222 223 223 223 223 223 222 222 224 224 224 225 224 224 225 225 225 227
 207 207 207 206 207 207 207 207 208 208 209 209 208 209 209 209 209 209 209 210 208 210 209 209 211 211 211 209 209 211 210 211 210 211 212 209 211 210 211 213 207 216 209 214 215 212 212 211 213 211 212 212 212 215 213 214 214 214 215 214 215 213 213 214 213 214 213 212 212 214 215 216 216 217 217 217 218 218 219 218 218 218 219 218 219 220 221 221 220 220 221 220 221 220 220 220 221 221 221 223 223 222 223 222 222 222 223 223 225 223 223 223 224 225 225 225 224 225 225 225
 207 208 207 207 207 207 207 207 208 207 207 207 208 208 207 209 208 208 210 209 209 209 209 210 210 211 210 211 209 209 211 209 210 211 211 212 211 212 211 210 214 212 213 213 214 213 210 213 211 211 212 210 214 213 213 213 214 215 213 214 212 213 213 213 214 212 215 212 214 215 216 216 216 218 218 217 218 218 218 218 218 218 218 218 218 219 220 220 221 220 221 220 221 220 220 221 221 222 223 222 223 222 222 223 223 223 223 224 223 224 224 224 224 225 224 224 225 225 224 225
 208 208 207 208 208 208 206 207 208 207 208 208 208 208 208 207 208 207 208 208 209 208 209 209 209 208 209 211 207 212 210 211 210 211 211 212 212 213 210 212 210 212 213 212 213 210 212 210 213 214 212 214 213 213 213 213 213 212 211 207 212 213 212 212 209 211 211 215 216 216 215 216 218 217 218 217 217 218 218 217 218 218 218 219 219 219 220 220 220 220 221 221 221 221 221 221 222 222 222 222 222 223 223 223 223 224 223 223 224 223 224 224 224 223 224 224 224 224 225 225
 206 206 208 207 207 207 207 208 207 207 207 207 208 207 208 208 208 208 209 208 208 209 209 209 209 209 210 209 209 211 210 211 211 212 212 211 212 211 210 210 213 213 212 213 209 211 209 209 208 208 208 208 210 208 205 208 209 209 207 211 212 212 211 213 212 216 216 216 216 216 216 215 216 216 216 217 216 218 217 218 218 217 218 219 217 218 219 219 220 220 221 221 221 221 221 221 222 222 222 222 222 223 223 223 223 223 223 224 223 224 224 224 224 223 224 224 225 224 225 225
 207 206 208 207 206 206 207 207 208 208 209 207 206 207 208 208 208 208 208 207 208 208 209 208 208 209 209 210 208 211 212 210 212 212 212 212 212 207 211 212 213 211 210 208 208 208 207 212 210 212 211 212 213 209 213 212 213 212 214 215 215 215 215 216 215 215 216 216 216 217 217 217 217 216 218 217 217 218 218 218 218 220 218 218 219 219 219 219 219 220 220 221 223 221 221 222 222 222 222 222 223 223 223 223 223 223 224 223 224 224 224 224 224 223 224 224 224 225 225 224
 206 207 208 207 206 208 207 208 208 208 207 207 208 208 207 207 208 208 207 207 207 208 208 207 210 208 211 210 208 211 210 211 211 210 212 212 210 207 211 212 212 212 208 211 210 210 208 208 210 209 209 213 213 213 211 213 213 213 214 215 215 215 215 215 215 215 215 217 216 218 218 217 217 217 217 217 217 218 218 219 218 218 219 219 219 220 219 219 220 220 221 220 221 221 221 221 222 221 222 223 224 223 222 223 223 223 222 224 223 223 224 223 224 224 225 224 225 224 225 225
 207 208 208 207 207 208 208 208 207 207 207 207 208 208 209 208 208 205 207 207 207 208 208 209 209 209 211 211 207 210 211 210 211 211 210 210 208 210 212 213 213 209 211 212 212 213 210 213 211 209 211 211 214 213 212 213 212 214 215 214 215 216 215 215 215 216 216 216 217 216 216 216 217 217 217 217 217 216 218 218 218 218 219 218 218 220 218 219 219 219 220 220 220 221 221 221 222 221 222 223 222 223 223 223 223 223 223 223 224 224 223 223 223 223 224 224 224 224 224 224
 208 208 208 208 207 207 207 208 207 207 208 209 208 208 208 207 205 205 204 202 205 206 204 210 210 210 209 209 208 207 209 207 208 207 209 211 211 212 212 212 213 208 211 211 212 211 212 213 212 213 212 213 212 212 212 213 214 212 214 215 215 215 215 215 215 216 216 216 218 216 216 216 216 216 217 217 217 217 217 217 218 218 218 218 219 219 219 219 219 220 219 220 221 220 221 222 221 222 222 222 222 222 222 223 224 223 223 224 223 223 224 224 223 224 224 224 224 223 223 224
 208 207 207 207 207 206 207 208 208 212 210 209 208 205 206 206 205 206 206 206 207 204 206 208 210 210 209 209 209 211 209 212 211 211 212 207 209 209 211 211 208 208 212 213 212 211 214 212 213 213 213 213 214 213 213 214 215 213 213 213 215 215 215 216 215 216 216 216 217 216 216 217 217 216 216 216 216 216 217 217 217 218 217 218 219 218 218 219 219 219 220 220 221 220 221 222 222 222 222 222 222 223 223 223 223 223 224 223 223 224 224 224 224 224 224 224 224 224 226 224
 208 208 207 207 208 208 207 207 208 209 210 210 206 208 208 207 208 208 208 207 207 207 210 210 209 209 208 206 210 210 211 210 212 211 210 208 209 210 210 206 210 209 210 215 213 214 212 212 213 214 213 212 213 213 213 213 214 213 214 213 214 214 215 214 215 216 215 218 217 217 216 216 216 217 217 216 217 217 217 218 218 218 217 217 217 218 218 219 219 219 219 220 221 220 221 221 221 221 222 222 221 222 222 222 222 223 223 224 223 223 224 224 223 224 224 224 224 224 225 224
 207 207 208 208 208 207 208 208 209 208 210 208 208 209 208 208 206 207 207 207 205 207 209 207 204 205 205 205 206 207 207 208 212 210 209 208 208 212 210 209 212 212 213 212 212 212 213 213 212 213 212 213 212 212 212 213 213 214 214 213 214 215 216 216 215 215 216 217 216 217 216 215 216 217 217 217 216 217 217 218 218 218 219 218 217 218 219 219 219 220 220 221 220 220 221 221 221 221 221 221 221 221 222 223 223 223 223 223 223 224 223 223 224 224 224 225 224 223 224 224
 207 208 208 207 208 208 208 208 204 204 204 206 208 207 209 209 208 208 207 209 203 206 206 206 209 210 211 209 209 207 206 206 209 209 208 208 208 207 210 211 212 213 210 215 213 212 212 212 213 213 214 213 213 213 212 213 214 214 215 215 215 215 216 215 216 216 216 216 217 215 216 216 216 217 217 218 216 217 217 217 217 217 218 218 217 219 219 219 219 220 221 220 221 221 221 220 220 221 221 221 222 222 222 223 223 223 223 223 223 223 223 223 223 223 223 224 223 223 224 224
 207 208 207 206 207 203 205 205 206 206 203 206 205 205 207 207 207 208 208 209 209 204 204 209 209 210 209 210 210 208 209 209 207 207 208 213 208 212 212 210 212 210 213 215 211 212 211 213 212 212 212 213 213 212 213 213 213 214 215 214 215 216 216 216 216 216 217 216 216 216 216 216 217 216 216 216 216 217 218 217 217 217 217 218 218 219 219 218 220 220 220 220 221 220 220 220 220 221 221 221 221 222 221 222 222 223 223 223 223 223 224 224 224 224 223 223 223 224 225 224
 207 207 206 205 203 205 206 208 207 205 206 204 203 203 203 206 206 207 206 204 204 204 204 206 206 208 207 210 210 210 213 212 216 209 212 211 211 211 211 212 209 212 212 212 212 211 212 212 212 213 213 213 213 214 213 214 214 213 215 214 215 217 216 216 216 216 216 216 216 217 216 217 217 216 216 217 216 216 217 217 217 217 217 218 218 218 218 219 220 220 220 221 220 221 220 220 220 221 221 221 221 222 222 222 222 222 222 221 223 222 223 223 223 223 223 223 224 224 225 224
 207 206 204 203 204 207 206 207 206 206 207 207 208 205 204 203 201 204 204 205 204 207 207 207 209 210 210 211 209 211 210 210 210 210 212 210 211 209 212 209 212 212 211 211 212 213 212 212 213 212 213 213 213 212 213 214 214 214 214 214 214 216 216 216 217 217 217 216 216 216 216 217 217 217 216 216 216 216 216 216 216 217 218 217 218 219 218 220 221 220 221 220 220 220 220 220 220 221 221 221 221 221 221 222 222 222 222 222 222 222 223 223 223 223 223 224 224 223 225 225
 205 205 204 206 207 207 207 207 205 206 207 208 209 210 208 207 209 208 211 209 210 213 211 208 209 212 211 209 210 208 211 209 210 209 209 210 209 211 208 210 211 211 211 211 212 212 212 212 212 213 213 213 213 213 213 214 213 213 214 215 215 215 216 216 217 216 216 216 216 216 217 216 216 216 217 216 216 216 216 216 217 217 218 219 219 217 219 220 220 220 221 220 221 221 220 221 220 221 221 221 220 221 222 222 222 222 221 222 222 223 222 223 223 223 224 225 225 225 225 225
 202 205 206 207 207 208 208 206 206 207 209 208 208 209 209 209 208 209 210 209 209 211 211 209 211 212 209 209 209 211 210 210 209 209 211 206 211 209 209 212 211 211 210 211 211 212 211 212 212 212 213 213 212 212 214 215 215 214 214 214 216 215 214 216 217 215 216 215 215 215 216 216 216 216 216 216 217 216 217 217 217 217 217 218 218 219 220 220 220 220 220 220 221 222 219 220 220 220 221 220 221 222 220 221 221 221 222 222 222 222 223 223 223 224 224 224 224 225 224 225
 206 206 206 207 208 207 206 206 206 207 208 208 209 207 208 208 209 209 210 208 209 207 209 209 210 208 211 210 209 211 209 210 208 208 209 210 210 208 212 211 212 210 211 211 211 211 212 212 212 212 212 213 213 214 213 215 215 214 214 214 215 215 214 215 215 216 217 216 215 216 216 217 216 216 218 218 217 217 217 218 217 218 218 217 218 219 219 219 220 219 220 220 220 219 219 219 220 220 221 221 221 221 221 221 222 222 222 222 223 222 223 223 224 223 223 224 224 225 224 223
 207 206 206 206 207 206 206 206 207 207 208 208 208 207 208 208 208 210 208 208 208 208 207 209 209 209 209 209 207 208 209 207 209 208 209 210 209 210 209 211 210 210 211 210 212 212 212 212 212 212 213 214 213 214 214 214 214 213 215 215 216 215 214 215 215 215 215 216 215 216 219 217 216 216 216 217 217 216 217 217 217 217 217 218 219 219 219 220 219 220 219 219 218 219 220 219 219 220 221 220 221 221 220 221 222 222 223 223 222 222 223 223 224 223 223 223 224 224 224 224
 205 206 206 206 206 206 207 206 207 207 208 207 208 207 208 208 208 209 209 208 210 211 209 208 208 209 209 208 208 209 208 209 208 208 211 210 210 210 210 210 210 211 210 211 210 211 212 212 212 212 212 213 214 214 213 213 214 213 214 215 214 214 215 214 215 217 217 215 215 216 216 216 216 216 216 216 216 217 217 217 217 217 218 219 218 218 219 218 218 219 219 218 219 219 219 220 220 220 220 220 221 221 221 222 222 222 222 222 223 223 223 223 224 223 224 224 223 224 224 224
 206 205 205 206 206 206 206 207 206 208 207 206 207 208 208 209 208 208 209 209 208 211 207 210 209 208 209 208 209 206 208 208 208 209 210 208 209 209 210 211 210 210 211 211 211 211 211 211 211 211 212 212 213 212 213 213 213 213 214 214 214 216 215 215 215 216 215 215 215 216 216 216 216 217 216 215 216 217 217 216 217 217 219 219 219 218 217 218 218 218 218 218 219 219 219 220 220 220 220 220 220 221 221 222 222 221 222 223 224 222 223 223 223 223 224 223 223 224 224 224
 206 205 205 205 205 206 206 206 207 207 208 209 207 210 207 208 208 207 209 208 209 207 208 211 206 209 209 209 209 209 209 208 210 208 211 210 208 210 210 211 209 210 211 210 212 209 210 211 211 211 212 212 212 213 213 213 214 213 214 214 215 214 215 215 214 215 216 216 216 216 215 215 216 216 216 216 217 218 216 216 217 217 218 218 218 217 218 217 218 218 219 219 219 219 219 219 220 220 220 220 220 220 221 221 222 222 222 222 223 223 222 222 222 223 223 224 224 225 225 224
 205 205 205 204 205 205 206 206 207 207 208 205 207 207 208 208 208 207 207 208 208 209 210 208 209 208 210 210 208 209 207 210 207 209 210 207 210 210 210 210 209 210 210 210 211 211 211 211 212 212 212 212 212 212 212 213 212 213 213 214 213 214 215 215 214 214 216 216 215 216 216 215 215 216 216 216 217 216 216 217 217 217 217 217 217 217 217 217 218 218 217 219 219 219 220 219 219 220 220 219 221 221 221 221 222 221 222 223 223 223 222 222 223 223 223 223 223 223 223 223
 205 204 206 206 205 206 206 206 206 206 207 207 206 207 209 207 209 207 206 208 206 209 207 208 210 209 209 209 209 207 209 208 209 207 208 209 210 211 208 210 211 210 211 211 211 211 211 212 212 212 212 212 213 212 212 212 214 213 214 213 215 215 215 215 215 215 216 215 215 216 216 216 216 217 216 216 216 217 216 216 217 218 218 217 218 217 217 218 218 218 219 218 218 219 219 219 219 221 219 221 223 221 221 221 221 222 222 223 223 222 222 222 223 223 222 223 223 223 223 223
 206 205 205 206 205 206 207 205 205 206 207 206 207 208 207 207 207 207 207 206 208 208 208 209 208 207 207 209 209 209 209 208 209 210 210 210 210 210 209 210 211 211 211 211 212 212 211 212 212 211 212 212 211 211 213 213 213 213 213 214 213 214 214 214 215 215 215 215 216 216 216 216 216 217 216 217 217 217 216 217 217 217 218 218 218 219 219 219 219 219 219 218 219 219 219 220 220 221 219 220 221 221 221 221 222 222 222 223 223 223 223 223 222 222 222 223 223 223 223 223
 206 205 205 204 206 206 206 205 206 206 206 205 206 205 207 207 207 208 206 207 207 208 212 208 209 208 208 209 207 211 207 209 210 209 210 210 210 210 211 210 210 212 210 211 212 211 210 211 211 211 212 213 211 212 212 212 212 213 213 214 214 213 214 214 214 215 215 214 215 215 214 216 217 216 216 216 216 216 217 217 218 218 218 218 218 219 219 219 219 219 218 219 219 220 219 219 219 220 219 220 221 220 221 222 221 222 223 222 222 222 222 222 222 222 222 223 222 222 223 223
 205 205 205 205 206 205 206 205 206 207 204 206 204 206 208 207 209 207 209 210 209 211 208 207 207 208 208 205 211 209 209 210 210 210 210 210 211 211 211 211 211 211 211 212 211 210 211 211 211 211 213 215 215 214 212 212 213 213 214 213 213 214 214 213 215 215 214 215 215 216 216 217 216 217 216 216 216 217 217 217 217 218 218 218 218 219 218 219 219 219 219 219 219 219 219 219 220 220 219 219 220 221 221 222 222 222 222 222 222 222 222 222 222 222 222 222 222 223 223 223
 205 206 205 205 205 205 205 205 206 205 205 206 207 206 207 209 208 208 210 209 209 209 208 208 207 208 208 209 208 210 211 210 211 211 211 211 211 211 211 212 211 211 212 210 211 211 210 211 212 213 213 214 213 212 213 213 212 213 213 213 214 213 213 214 214 214 215 214 215 215 217 216 216 216 217 216 216 216 217 216 217 218 217 218 218 218 219 219 218 218 219 219 219 219 220 219 219 219 220 220 220 221 221 222 222 222 222 221 221 221 221 222 222 222 222 222 222 223 222 223
 206 207 207 205 206 205 205 206 206 205 206 205 207 207 206 206 207 207 207 208 208 209 208 206 209 209 211 211 210 210 210 211 210 211 211 211 212 211 212 212 211 212 211 211 211 212 212 210 211 212 211 212 213 212 211 212 212 212 213 213 212 214 213 214 214 214 214 214 215 215 216 217 217 216 217 216 217 217 217 216 217 217 217 217 217 218 218 218 218 219 218 218 219 218 219 219 220 220 220 220 221 221 222 223 222 221 222 222 221 221 221 221 221 222 222 222 222 223 225 225
 205 207 206 205 206 205 207 205 206 205 204 208 206 206 207 208 207 207 208 207 208 207 208 211 209 211 210 210 212 211 211 210 211 211 211 211 211 212 211 211 211 211 211 211 212 212 212 211 211 211 212 212 213 212 212 212 212 213 213 213 214 213 213 214 213 214 214 214 215 216 216 216 217 217 217 216 216 216 217 218 217 217 219 218 217 218 218 218 218 218 218 218 219 219 220 219 219 220 220 221 221 221 221 221 222 222 222 222 221 220 221 222 221 222 221 222 222 223 226 226
 207 205 205 205 205 206 204 205 205 205 205 206 205 207 207 209 208 209 209 208 209 206 211 211 211 210 209 213 211 210 210 211 211 211 212 211 211 212 210 211 211 211 211 211 212 211 212 212 211 212 213 212 213 212 211 211 212 211 210 213 213 213 213 213 214 215 215 215 214 215 215 216 217 215 216 215 218 218 217 218 218 218 218 218 218 217 218 218 219 219 219 218 219 219 219 220 220 221 221 221 221 221 221 221 221 222 220 222 220 220 221 222 222 222 222 222 222 223 226 225
 206 205 205 205 205 205 205 206 208 207 206 206 206 205 208 207 208 208 209 209 208 211 209 211 211 210 210 210 210 210 211 211 211 211 210 210 211 211 210 210 211 211 211 211 211 212 213 212 211 212 212 212 212 212 212 212 212 213 211 212 212 214 213 213 214 213 214 215 214 215 215 215 216 214 215 215 217 217 217 217 217 217 217 217 217 216 218 217 218 218 218 219 219 220 220 220 221 221 220 221 221 221 221 221 221 221 221 221 221 220 221 222 223 223 223 223 223 223 225 225
 205 206 206 206 206 205 206 206 206 208 208 207 207 207 207 208 208 208 208 208 210 208 208 209 209 211 209 210 210 210 211 210 211 210 211 211 210 211 210 211 211 211 211 211 211 211 212 211 211 212 211 212 213 213 213 213 213 212 212 212 213 214 213 214 213 214 215 214 215 215 216 216 215 214 214 215 216 216 216 218 217 216 216 217 217 217 217 218 218 218 218 219 219 220 219 221 221 220 221 222 221 222 221 221 221 221 221 221 221 220 221 223 223 222 222 223 222 223 224 224
 206 206 206 206 205 206 206 208 208 207 207 205 207 205 206 208 207 208 207 208 207 210 208 208 210 209 210 210 210 210 210 210 210 210 210 210 210 210 211 211 211 210 210 211 212 212 212 211 211 211 212 212 212 211 213 212 213 212 211 213 213 213 212 214 214 214 213 214 214 215 215 215 215 215 214 214 215 215 216 216 216 216 217 216 217 217 217 218 218 217 219 219 218 219 219 220 220 220 220 220 221 221 220 220 221 221 220 220 221 221 221 221 222 221 222 222 223 223 223 223
 205 205 206 205 207 206 207 207 208 210 208 208 205 205 209 207 210 208 207 208 208 210 207 210 207 208 210 209 210 208 210 209 209 210 210 210 210 210 210 210 211 210 210 211 212 211 211 212 211 211 212 212 212 212 213 213 212 212 213 212 212 212 213 213 213 214 213 214 214 215 215 215 214 214 215 215 215 215 215 215 215 215 215 216 216 216 217 218 218 218 219 219 218 219 220 220 220 221 220 220 220 221 220 220 220 220 221 221 221 221 221 221 222 221 222 222 222 223 223 222
 205 205 207 208 208 208 206 208 208 207 208 207 206 210 206 207 207 208 208 207 208 208 209 208 208 209 208 210 209 209 209 209 210 209 209 209 209 209 210 210 210 211 212 211 211 211 211 211 212 211 211 212 212 212 212 213 212 212 213 213 213 214 213 213 213 213 213 214 214 214 215 215 214 215 215 216 216 216 215 215 214 215 214 215 216 216 217 217 218 218 218 219 219 218 219 220 220 220 220 220 220 220 219 221 221 221 221 221 220 220 221 221 221 221 221 222 222 223 222 222
 206 205 206 205 207 207 206 208 207 209 207 206 207 207 208 207 207 206 206 207 208 212 209 208 208 208 209 209 209 209 208 209 209 209 210 210 209 209 210 209 210 211 211 210 212 210 211 211 211 211 212 212 212 213 212 212 213 212 213 213 213 213 213 213 213 213 213 213 214 215 217 216 214 216 216 215 215 215 214 215 214 214 213 214 215 216 217 217 218 218 218 218 219 219 219 219 219 220 220 220 220 220 220 221 220 220 219 220 220 220 220 220 222 220 222 222 221 222 222 222
 206 205 207 206 206 207 207 208 207 208 207 209 207 208 206 207 209 206 208 206 206 208 209 209 209 208 209 209 208 208 209 208 209 209 208 208 208 209 210 210 210 210 210 210 210 211 211 211 212 212 212 212 212 212 213 212 213 213 213 213 213 213 213 213 213 213 214 214 214 215 215 215 214 215 216 215 215 215 214 215 214 214 214 214 215 216 216 217 217 217 217 218 219 219 219 219 219 220 220 220 220 220 220 220 220 220 219 220 220 220 220 220 221 220 221 222 222 222 223 221
 205 205 206 206 206 207 208 207 208 204 207 207 208 207 207 210 208 208 206 207 207 206 209 207 207 208 208 208 207 207 207 208 208 208 208 209 208 209 210 211 211 211 210 210 211 209 211 211 211 212 212 212 212 213 213 213 213 212 213 213 214 213 213 213 213 214 214 215 215 215 216 215 214 215 215 215 215 215 215 214 214 214 214 214 215 215 215 217 216 217 218 219 219 219 219 219 220 219 220 220 220 220 220 220 220 220 220 219 220 220 220 221 221 221 220 221 221 221 221 221
 204 204 205 206 206 206 206 208 207 206 207 208 208 206 208 210 209 208 206 205 207 208 208 208 207 207 208 208 208 206 207 207 208 208 207 208 209 208 209 210 211 210 211 210 210 210 211 211 211 212 211 213 213 212 212 212 213 213 213 213 214 213 213 214 213 213 215 216 216 216 214 214 214 215 215 215 215 214 214 214 214 213 214 214 215 215 215 216 216 217 218 219 219 219 219 219 220 221 220 220 220 220 220 220 220 220 220 220 220 219 220 220 220 221 220 221 222 221 222 222
 205 205 205 205 206 205 207 206 206 207 206 208 208 208 207 208 208 206 209 206 208 207 207 209 208 208 207 207 208 206 207 206 207 206 209 208 207 208 209 209 210 210 210 209 210 210 210 211 211 211 211 212 211 213 212 212 214 216 213 213 213 213 214 213 214 214 215 216 216 216 215 214 215 215 215 215 214 214 214 214 214 214 214 214 215 216 215 216 216 217 217 218 218 219 218 221 220 220 219 221 221 219 220 220 220 220 219 219 220 220 220 220 220 220 220 221 221 222 221 221
 205 205 205 206 205 205 205 205 206 207 207 206 208 207 207 209 207 207 206 208 206 207 207 208 209 207 207 207 207 207 207 207 207 207 207 208 209 209 209 209 210 209 209 209 209 210 211 210 211 211 211 212 212 212 212 212 211 212 214 214 213 213 214 214 214 216 215 217 216 216 214 214 215 215 215 214 215 214 214 214 214 214 215 215 214 215 216 216 217 216 217 218 217 219 219 219 219 219 219 220 219 220 220 220 219 219 219 219 219 219 220 220 220 220 222 221 221 221 222 221
 205 203 205 205 205 205 205 205 205 207 206 207 208 206 206 208 207 208 207 207 206 207 207 207 208 207 207 207 206 207 207 207 208 207 208 208 208 209 209 209 208 209 209 209 211 210 210 210 211 211 212 212 212 213 212 212 213 213 213 214 213 213 214 215 214 215 215 216 215 215 214 215 215 214 215 214 214 214 215 214 214 214 214 214 215 216 216 216 217 217 217 217 218 218 218 218 218 219 219 219 219 219 220 220 220 219 219 219 220 219 220 220 220 220 221 221 221 221 221 221
 204 204 205 204 205 203 206 203 206 207 205 207 207 208 207 208 207 208 208 207 206 207 206 206 208 208 205 207 206 207 207 207 207 208 208 207 208 208 208 208 209 209 209 209 209 209 210 211 211 211 211 211 212 211 212 213 214 213 213 213 214 214 214 214 215 216 215 215 215 214 214 215 214 215 215 215 214 215 215 216 215 214 215 215 215 216 216 217 217 218 217 217 217 217 218 218 219 219 220 219 219 220 219 219 219 219 219 219 219 219 220 220 220 220 220 221 221 221 221 221
 204 204 204 204 204 204 203 204 206 206 206 205 207 207 207 207 207 208 206 208 207 206 205 207 208 210 208 207 207 208 207 207 208 207 208 209 208 209 208 209 209 209 210 209 209 210 209 210 211 211 211 212 212 212 213 213 213 213 214 214 214 214 215 216 215 215 216 215 214 215 215 214 215 215 215 214 214 215 214 215 215 216 216 216 216 216 216 217 217 218 217 217 217 217 218 218 217 219 219 218 219 220 219 220 219 219 219 219 219 219 219 220 220 219 220 220 221 221 221 221
 204 204 203 203 204 205 204 205 204 208 204 207 207 206 207 207 208 207 207 207 207 208 207 207 207 209 207 208 209 207 207 208 209 208 209 209 209 209 208 209 209 209 209 210 210 210 209 211 210 210 211 212 212 212 212 212 213 214 214 213 214 214 215 215 215 214 215 214 213 215 215 215 215 215 215 214 215 216 215 215 214 215 215 216 216 216 217 218 217 218 217 218 217 218 217 218 217 217 218 219 219 219 219 219 219 219 219 219 220 219 220 220 220 220 220 220 220 220 221 221
 202 204 203 203 204 203 204 203 207 206 205 207 203 206 207 207 208 208 207 206 207 206 207 208 207 207 209 208 207 208 208 207 209 209 209 209 209 209 209 209 209 210 209 210 210 210 209 210 210 210 211 212 212 212 213 213 214 215 213 213 215 215 215 216 216 215 215 213 214 214 215 214 214 215 215 214 215 216 216 215 215 215 216 216 216 217 217 218 217 217 217 219 218 218 218 218 218 218 217 218 218 218 219 219 218 218 219 221 220 219 219 219 220 220 220 220 220 221 221 221
 202 202 203 202 203 204 205 205 205 204 206 206 206 204 207 207 207 206 206 207 205 208 207 208 209 208 208 208 209 207 208 208 208 209 209 209 210 209 209 209 209 208 209 209 210 210 211 210 210 211 212 211 212 213 213 213 213 213 213 214 215 216 216 216 216 216 214 214 213 214 215 215 214 215 215 215 215 216 215 216 217 217 217 217 217 217 217 217 217 217 218 219 217 218 218 218 217 217 217 217 218 218 218 219 218 219 220 219 219 219 219 219 220 219 220 220 220 220 221 222
 202 203 203 203 203 204 203 204 202 205 206 205 204 204 204 207 207 206 205 205 207 207 208 208 209 210 210 210 208 208 209 207 208 208 210 210 209 209 211 210 209 209 210 210 209 210 210 210 211 211 211 212 212 212 212 212 213 214 214 215 216 215 215 216 215 215 215 214 214 214 215 214 214 214 215 215 215 216 216 216 216 217 218 217 217 217 217 217 217 216 218 218 217 218 218 218 218 217 217 217 218 217 217 218 218 218 218 219 219 219 219 219 220 220 220 220 221 221 222 221
 202 203 201 204 204 203 203 201 203 203 204 204 204 204 204 208 205 205 205 206 207 208 209 208 209 209 210 210 209 207 206 207 207 208 209 210 209 209 209 209 209 209 209 210 209 210 210 211 211 211 211 211 212 213 212 213 213 213 215 215 215 215 215 215 214 215 213 213 213 214 214 215 214 215 215 215 215 216 215 216 216 217 216 217 217 217 217 217 217 218 218 218 218 219 219 218 217 217 217 218 217 217 217 217 217 218 218 219 220 219 220 221 219 220 220 220 220 220 220 220
 202 202 202 202 201 204 201 201 203 203 204 204 204 205 206 205 206 206 205 207 208 207 208 208 208 208 208 209 208 209 208 207 208 207 208 210 209 209 209 210 209 209 209 210 210 211 210 211 211 211 211 211 211 212 212 213 213 214 214 214 215 215 215 214 214 215 214 213 214 214 215 214 214 214 214 215 215 215 215 216 216 216 217 217 217 217 217 217 218 218 218 218 218 218 218 218 218 217 217 218 218 218 218 217 217 217 218 218 219 219 221 223 220 220 220 221 220 221 219 220
 202 201 203 201 204 202 203 204 204 205 204 205 206 206 205 206 207 205 206 206 207 206 209 208 208 209 209 209 212 209 210 208 207 208 208 207 208 209 208 209 209 209 209 209 210 211 211 211 210 211 211 211 212 211 212 212 213 213 213 213 213 214 213 214 214 213 212 213 214 214 214 214 215 214 215 215 216 217 216 216 216 217 217 217 217 217 217 217 218 218 218 218 217 218 218 218 217 217 218 218 217 218 217 218 218 218 218 219 219 219 220 221 220 221 221 221 220 220 221 220
 203 202 203 203 203 203 205 204 206 205 205 205 205 206 206 207 206 207 207 207 207 208 208 209 208 208 208 209 209 209 208 209 209 209 208 209 208 209 209 209 209 209 210 209 211 211 211 210 211 211 210 211 211 211 211 211 211 212 212 212 213 213 212 213 213 213 213 213 214 214 214 214 214 213 215 215 215 216 217 216 217 217 217 218 217 217 217 217 218 218 218 219 218 218 219 218 217 218 217 217 218 218 218 219 218 218 219 219 219 219 220 220 220 221 220 220 220 220 220 220
 203 199 201 205 204 204 205 207 204 205 206 205 205 205 206 206 206 206 205 206 207 208 208 208 208 208 208 207 208 207 208 209 209 209 211 209 210 209 210 209 210 209 210 211 210 211 211 211 211 211 211 210 211 210 211 211 210 211 212 211 211 212 212 212 212 213 213 214 213 214 214 215 214 213 214 214 215 216 217 215 217 217 218 217 217 218 218 218 219 218 219 218 219 218 218 217 218 217 218 218 218 218 218 218 218 219 219 219 218 219 219 219 220 220 220 220 220 220 220 220
 202 204 204 203 206 202 207 204 207 204 205 205 205 205 203 205 205 206 206 206 208 206 207 208 207 207 207 207 207 211 208 209 209 210 210 211 211 210 209 209 210 210 212 211 210 211 210 209 210 211 210 211 211 210 211 211 211 212 212 212 213 213 212 212 212 213 213 214 213 215 215 215 215 214 214 215 215 215 216 217 217 217 217 218 219 219 218 219 219 218 218 219 218 217 217 216 217 218 218 218 218 218 217 218 219 219 219 219 219 219 218 218 219 219 220 220 220 220 220 220
 201 204 202 204 204 205 203 205 206 206 205 205 205 205 205 207 204 205 207 206 206 206 207 206 206 207 207 207 208 208 207 208 208 209 211 211 211 211 211 210 210 210 211 210 211 209 209 210 210 210 211 210 210 212 211 211 211 211 212 212 212 212 212 212 212 213 214 214 213 214 215 215 215 214 215 215 216 216 217 217 217 218 218 218 219 218 218 219 218 218 218 218 217 218 218 218 218 217 217 218 218 219 218 218 219 219 220 219 219 219 218 220 219 218 219 220 219 220 220 219
 204 201 203 203 204 205 204 205 205 206 205 206 205 205 206 205 206 207 207 207 206 206 206 206 206 206 206 207 207 207 211 211 209 209 209 210 211 211 211 212 211 210 210 210 210 210 209 210 210 210 211 210 211 210 212 211 210 211 211 211 212 212 212 213 213 213 213 214 214 215 217 214 215 215 216 216 216 216 217 217 217 217 218 218 218 218 217 217 218 217 218 217 217 218 218 218 218 218 217 218 218 217 218 219 219 219 219 220 219 219 220 220 219 218 218 218 219 219 220 220
 201 203 206 206 206 205 206 206 205 205 206 207 205 206 206 206 207 206 207 206 206 205 207 205 205 206 206 206 207 208 207 209 209 209 211 210 210 211 211 211 211 212 210 209 209 209 209 210 209 209 210 210 210 211 211 211 211 211 211 212 211 212 212 212 212 214 214 213 214 214 214 214 217 217 216 216 217 216 217 217 217 217 216 216 217 217 217 218 218 218 218 217 218 218 217 217 217 218 219 220 219 217 218 218 218 219 219 221 220 219 219 219 219 218 219 218 219 219 220 220
 203 204 202 207 204 205 204 205 205 206 206 207 206 206 206 206 205 205 206 205 206 206 205 205 206 205 205 206 206 207 208 208 210 210 210 211 210 210 211 211 211 212 211 210 209 209 209 208 210 209 210 210 211 210 210 211 212 212 211 212 211 212 212 212 213 214 214 214 214 215 215 214 215 216 216 217 217 216 216 216 217 216 217 216 217 217 217 218 218 218 218 217 217 217 218 217 217 217 219 222 221 220 218 218 219 219 219 218 219 220 219 219 218 218 218 219 219 220 218 219
 205 202 206 204 206 205 205 206 205 205 206 206 206 206 207 207 206 205 206 206 207 206 207 206 205 207 205 206 206 207 207 208 210 208 209 209 210 210 210 210 211 211 210 210 211 209 209 210 210 210 211 211 210 212 211 211 211 211 212 212 211 211 212 212 213 213 214 214 215 215 215 215 216 215 216 217 216 216 216 216 217 216 217 216 217 217 217 218 217 217 217 217 217 217 218 217 218 219 221 222 220 219 218 218 218 219 219 219 219 219 218 218 218 218 219 219 219 219 219 218
 202 205 203 204 203 204 204 204 206 205 206 206 205 206 206 206 206 206 207 206 209 207 206 205 206 206 207 208 207 208 209 208 209 209 208 209 209 209 210 210 210 210 210 210 210 211 211 210 211 210 210 212 211 211 211 211 211 211 211 212 212 213 213 213 213 214 214 214 214 214 214 214 214 216 215 215 215 215 215 215 216 216 216 217 216 217 217 217 217 217 217 217 217 218 218 218 217 217 217 217 217 218 218 219 219 219 219 219 218 218 218 218 218 219 219 219 219 219 219 219
 204 202 203 204 204 205 204 204 204 205 204 206 205 206 206 206 206 206 206 207 207 206 207 207 208 209 209 208 208 208 206 207 208 208 207 208 208 209 209 208 209 209 210 210 211 211 211 212 211 210 211 213 212 211 211 211 211 211 212 213 213 212 214 213 214 213 214 213 213 214 214 214 215 214 215 215 214 215 216 215 215 216 216 216 217 217 217 217 217 216 217 217 217 217 218 217 217 218 217 217 218 218 218 219 219 219 219 218 218 218 218 217 218 220 220 218 219 219 219 219
 202 203 202 203 204 203 205 204 205 205 205 205 206 206 206 207 207 208 207 207 207 207 206 206 207 206 207 207 207 207 206 207 207 210 209 209 208 208 209 208 209 209 209 210 210 211 211 211 211 212 211 213 211 211 211 211 210 211 212 213 213 212 213 214 214 213 213 213 213 214 215 214 214 214 213 214 214 215 215 215 215 215 215 216 217 217 217 217 217 217 218 217 217 217 217 217 218 217 217 217 218 218 218 218 220 219 218 218 218 218 218 218 219 220 219 219 219 219 219 219
 203 204 202 202 203 204 203 203 204 204 205 204 205 207 207 206 207 208 207 206 205 205 206 206 206 206 206 206 207 207 207 206 208 208 207 208 208 210 210 208 209 210 210 210 211 211 210 211 212 212 211 211 210 211 211 211 211 212 212 212 213 213 213 213 213 213 213 213 213 214 213 213 214 214 214 214 215 213 214 215 216 215 216 216 217 216 216 217 217 217 217 216 217 216 216 217 216 217 217 217 217 217 219 219 219 218 218 218 218 218 218 219 219 220 219 219 219 219 219 219
 202 202 202 202 202 202 203 204 204 205 204 205 205 205 206 208 207 207 205 206 206 206 206 205 206 206 206 207 206 206 206 206 207 208 210 208 208 209 208 208 208 208 211 209 210 210 211 211 211 211 212 212 212 212 211 212 212 213 213 213 214 214 212 212 212 212 212 213 213 213 213 213 213 214 214 214 214 215 215 217 215 216 216 217 217 217 217 217 217 216 216 216 216 216 216 216 217 217 217 217 218 218 218 219 218 218 218 218 218 218 219 219 219 219 219 219 219 219 220 220
 201 202 202 202 202 202 202 202 203 203 203 204 204 205 206 207 207 206 205 206 206 206 207 206 206 206 206 207 206 206 207 207 207 207 208 209 208 208 209 208 209 210 209 210 210 211 210 212 212 212 213 213 212 213 213 213 212 213 213 214 213 212 212 213 212 213 215 213 213 213 213 213 213 213 214 213 213 213 215 215 215 215 216 216 215 216 216 216 216 216 216 216 216 216 216 216 216 216 217 218 218 218 219 219 217 218 218 218 218 219 219 219 219 219 219 219 219 219 219 220
 204 202 202 202 202 203 203 203 202 204 203 204 204 204 205 206 205 204 205 206 207 207 207 207 206 205 205 205 207 207 207 207 206 208 209 207 206 207 208 208 208 208 209 210 211 210 211 212 213 212 212 212 212 212 212 213 213 213 213 213 213 214 213 213 212 213 212 212 212 213 213 213 213 213 214 213 213 214 214 214 216 215 215 216 215 215 216 215 215 215 216 216 215 216 216 216 216 216 217 218 217 219 219 219 218 218 218 218 218 219 218 219 219 219 222 219 219 219 219 219
